ply
    		format ascii 1.0
    		element vertex 79325
    		property float x
    		property float y
    		property float z
    		property uchar red
    		property uchar green
    		property uchar blue
    		end_header
-228.000000 -142.000000 -78353.875000 181 180 175
-227.000000 -142.000000 -78353.875000 179 178 172
-226.000000 -142.000000 -78353.875000 177 176 170
-225.000000 -142.000000 -78353.875000 177 176 170
-224.000000 -142.000000 -78353.875000 176 175 169
-197.000000 -142.000000 -78353.875000 173 176 166
-196.000000 -142.000000 -78353.875000 174 177 167
-195.000000 -142.000000 -78353.875000 175 177 168
-194.000000 -142.000000 -78353.875000 176 177 169
-193.000000 -142.000000 -78353.875000 177 176 170
-192.000000 -142.000000 -78353.875000 178 177 171
-191.000000 -142.000000 -78353.875000 179 177 171
-190.000000 -142.000000 -78353.875000 178 178 170
-189.000000 -142.000000 -78353.875000 179 178 171
-188.000000 -142.000000 -78353.875000 178 177 171
-187.000000 -142.000000 -78353.875000 177 176 171
-186.000000 -142.000000 -78353.875000 176 176 171
-185.000000 -142.000000 -78353.875000 178 176 171
-184.000000 -142.000000 -78353.875000 179 177 171
-183.000000 -142.000000 -78353.875000 179 177 170
-182.000000 -142.000000 -78353.875000 179 178 169
-181.000000 -142.000000 -78353.875000 179 179 170
-180.000000 -142.000000 -78353.875000 181 180 171
-179.000000 -142.000000 -78353.875000 182 181 172
-178.000000 -142.000000 -78353.875000 182 182 173
-177.000000 -142.000000 -78353.875000 183 182 175
-176.000000 -142.000000 -78353.875000 183 182 176
-175.000000 -142.000000 -78353.875000 183 182 176
-174.000000 -142.000000 -78353.875000 182 183 176
-168.000000 -142.000000 -78353.875000 181 182 174
-167.000000 -142.000000 -78353.875000 179 179 172
-166.000000 -142.000000 -78353.875000 182 181 172
-165.000000 -142.000000 -78353.875000 179 178 169
-164.000000 -142.000000 -78353.875000 178 177 168
-163.000000 -142.000000 -78353.875000 178 178 169
-162.000000 -142.000000 -78353.875000 175 176 167
-161.000000 -142.000000 -78353.875000 174 175 166
-160.000000 -142.000000 -78353.875000 175 174 165
-159.000000 -142.000000 -78353.875000 175 174 165
-158.000000 -142.000000 -78353.875000 175 175 163
-157.000000 -142.000000 -78353.875000 176 176 165
-156.000000 -142.000000 -78353.875000 175 177 163
-152.000000 -142.000000 -78353.875000 179 178 168
-151.000000 -142.000000 -78353.875000 182 182 173
-150.000000 -142.000000 -78353.875000 184 184 177
-149.000000 -142.000000 -78353.875000 186 186 179
-148.000000 -142.000000 -78353.875000 186 184 178
-147.000000 -142.000000 -78353.875000 186 184 178
-146.000000 -142.000000 -78353.875000 186 186 177
-145.000000 -142.000000 -78353.875000 186 187 177
-144.000000 -142.000000 -78353.875000 187 186 176
-143.000000 -142.000000 -78353.875000 187 186 176
-140.000000 -142.000000 -78353.875000 186 187 178
-139.000000 -142.000000 -78353.875000 187 188 179
-138.000000 -142.000000 -78353.875000 187 189 179
-137.000000 -142.000000 -78353.875000 187 189 179
-136.000000 -142.000000 -78353.875000 186 188 177
-135.000000 -142.000000 -78353.875000 184 186 175
-134.000000 -142.000000 -78353.875000 186 186 178
-133.000000 -142.000000 -78353.875000 188 187 180
-132.000000 -142.000000 -78353.875000 190 188 180
-131.000000 -142.000000 -78353.875000 192 189 181
-130.000000 -142.000000 -78353.875000 191 189 179
-129.000000 -142.000000 -78353.875000 191 190 178
-128.000000 -142.000000 -78353.875000 186 186 174
-127.000000 -142.000000 -78353.875000 185 184 172
-101.000000 -142.000000 -78353.875000 191 193 181
-100.000000 -142.000000 -78353.875000 192 193 181
-99.000000 -142.000000 -78353.875000 193 192 181
-98.000000 -142.000000 -78353.875000 194 193 183
-97.000000 -142.000000 -78353.875000 195 194 185
-96.000000 -142.000000 -78353.875000 195 194 185
-95.000000 -142.000000 -78353.875000 195 194 185
-94.000000 -142.000000 -78353.875000 195 194 185
-93.000000 -142.000000 -78353.875000 194 193 184
-92.000000 -142.000000 -78353.875000 194 193 184
-91.000000 -142.000000 -78353.875000 193 192 183
-90.000000 -142.000000 -78353.875000 192 192 183
-89.000000 -142.000000 -78353.875000 190 191 182
-88.000000 -142.000000 -78353.875000 190 190 182
-60.000000 -142.000000 -78353.875000 159 158 139
-59.000000 -142.000000 -78353.875000 163 159 143
-58.000000 -142.000000 -78353.875000 166 162 148
-57.000000 -142.000000 -78353.875000 181 178 168
-56.000000 -142.000000 -78353.875000 188 184 177
-55.000000 -142.000000 -78353.875000 181 180 175
-54.000000 -142.000000 -78353.875000 184 182 177
-38.000000 -142.000000 -78353.875000 0 0 0
-37.000000 -142.000000 -78353.875000 0 0 0
-36.000000 -142.000000 -78353.875000 0 0 0
-32.000000 -142.000000 -78353.875000 55 63 52
-31.000000 -142.000000 -78353.875000 124 107 99
-30.000000 -142.000000 -78353.875000 168 156 150
-29.000000 -142.000000 -78353.875000 167 165 163
-28.000000 -142.000000 -78353.875000 170 169 164
-27.000000 -142.000000 -78353.875000 173 174 165
-26.000000 -142.000000 -78353.875000 176 176 170
-25.000000 -142.000000 -78353.875000 177 177 174
-24.000000 -142.000000 -78353.875000 180 181 177
-23.000000 -142.000000 -78353.875000 185 186 179
-22.000000 -142.000000 -78353.875000 188 190 182
-6.000000 -142.000000 -1248764.875000 195 192 192
-5.000000 -142.000000 -1248764.875000 185 183 179
-4.000000 -142.000000 -1248764.875000 172 171 169
-3.000000 -142.000000 -1248764.875000 155 155 155
-2.000000 -142.000000 -1248764.875000 162 158 156
-1.000000 -142.000000 -1248764.875000 179 171 170
24.000000 -142.000000 -1155719.625000 0 0 0
25.000000 -142.000000 -1248764.875000 0 0 0
26.000000 -142.000000 -1248764.875000 0 0 0
27.000000 -142.000000 -1248764.875000 6 12 12
28.000000 -142.000000 -1248764.875000 15 19 15
36.000000 -142.000000 -78353.875000 181 179 175
37.000000 -142.000000 -78353.875000 181 180 176
38.000000 -142.000000 -78353.875000 190 185 182
39.000000 -142.000000 -78353.875000 193 190 186
40.000000 -142.000000 -78353.875000 191 190 183
41.000000 -142.000000 -78353.875000 190 188 182
42.000000 -142.000000 -78353.875000 188 184 178
43.000000 -142.000000 -78353.875000 184 182 175
44.000000 -142.000000 -78353.875000 186 184 177
60.000000 -142.000000 -1248764.875000 169 160 150
61.000000 -142.000000 -1248764.875000 168 162 149
69.000000 -142.000000 -78353.875000 179 177 165
70.000000 -142.000000 -78353.875000 179 177 166
71.000000 -142.000000 -78353.875000 188 184 177
72.000000 -142.000000 -78353.875000 200 196 190
73.000000 -142.000000 -78353.875000 201 201 194
74.000000 -142.000000 -78353.875000 198 199 192
75.000000 -142.000000 -78353.875000 198 199 191
76.000000 -142.000000 -78353.875000 199 200 192
77.000000 -142.000000 -78353.875000 201 200 193
78.000000 -142.000000 -78353.875000 200 198 192
79.000000 -142.000000 -78353.875000 201 198 189
80.000000 -142.000000 -78353.875000 201 199 189
81.000000 -142.000000 -78353.875000 200 199 190
82.000000 -142.000000 -78353.875000 202 201 192
83.000000 -142.000000 -78353.875000 200 201 193
84.000000 -142.000000 -78353.875000 201 203 194
85.000000 -142.000000 -78353.875000 202 202 192
86.000000 -142.000000 -78353.875000 202 201 191
87.000000 -142.000000 -78353.875000 201 200 194
150.000000 -142.000000 -1106748.500000 209 203 195
151.000000 -142.000000 -1175308.125000 197 194 185
152.000000 -142.000000 -1189999.500000 203 200 192
153.000000 -142.000000 -1160616.750000 204 201 195
162.000000 -142.000000 -156707.750000 178 178 172
163.000000 -142.000000 -156707.750000 175 177 167
164.000000 -142.000000 -146913.515625 174 176 167
165.000000 -142.000000 -146913.515625 174 175 166
166.000000 -142.000000 -151810.625000 178 179 172
167.000000 -142.000000 -156707.750000 176 177 174
168.000000 -142.000000 -156707.750000 151 156 144
169.000000 -142.000000 -156707.750000 118 129 99
216.000000 -142.000000 -1248764.875000 198 195 188
217.000000 -142.000000 -1248764.875000 196 195 188
218.000000 -142.000000 -1248764.875000 196 195 188
219.000000 -142.000000 -1248764.875000 196 194 190
220.000000 -142.000000 -1248764.875000 196 194 190
221.000000 -142.000000 -1248764.875000 195 195 191
222.000000 -142.000000 -1248764.875000 196 196 191
255.000000 -142.000000 -78353.875000 195 195 187
256.000000 -142.000000 -78353.875000 192 193 187
257.000000 -142.000000 -78353.875000 194 193 187
258.000000 -142.000000 -78353.875000 195 194 187
259.000000 -142.000000 -78353.875000 194 193 186
260.000000 -142.000000 -78353.875000 193 191 185
261.000000 -142.000000 -78353.875000 190 191 184
262.000000 -142.000000 -78353.875000 188 189 182
263.000000 -142.000000 -78353.875000 176 178 173
264.000000 -142.000000 -78353.875000 176 178 172
265.000000 -142.000000 -78353.875000 189 191 184
266.000000 -142.000000 -78353.875000 191 192 185
267.000000 -142.000000 -78353.875000 192 191 187
268.000000 -142.000000 -78353.875000 191 191 187
269.000000 -142.000000 -78353.875000 189 188 187
270.000000 -142.000000 -78353.875000 184 184 181
271.000000 -142.000000 -78353.875000 173 174 169
272.000000 -142.000000 -78353.875000 178 179 174
288.000000 -142.000000 -78353.875000 199 198 196
289.000000 -142.000000 -78353.875000 199 198 196
290.000000 -142.000000 -78353.875000 198 198 196
291.000000 -142.000000 -78353.875000 198 198 196
292.000000 -142.000000 -78353.875000 197 198 195
293.000000 -142.000000 -78353.875000 196 196 194
294.000000 -142.000000 -78353.875000 197 197 194
317.000000 -142.000000 -78353.875000 193 194 191
318.000000 -142.000000 -78353.875000 108 109 107
319.000000 -142.000000 -78353.875000 0 0 0
-304.000000 -143.000000 -798230.125000 178 177 171
-303.000000 -143.000000 -808024.312500 179 178 171
-302.000000 -143.000000 -817818.562500 179 178 171
-301.000000 -143.000000 -842304.125000 179 178 172
-300.000000 -143.000000 -847201.250000 178 178 173
-299.000000 -143.000000 -847201.250000 178 178 173
-298.000000 -143.000000 -847201.250000 177 178 172
-297.000000 -143.000000 -847201.250000 177 177 171
-296.000000 -143.000000 -847201.250000 178 176 171
-295.000000 -143.000000 -856995.500000 177 176 171
-294.000000 -143.000000 -856995.500000 178 176 172
-257.000000 -143.000000 -142016.406250 182 183 177
-256.000000 -143.000000 -146913.515625 182 184 177
-255.000000 -143.000000 -146913.515625 183 184 177
-248.000000 -143.000000 -406460.718750 186 184 180
-247.000000 -143.000000 -406460.718750 183 182 178
-246.000000 -143.000000 -391769.375000 183 183 179
-243.000000 -143.000000 -994114.812500 183 184 177
-242.000000 -143.000000 -999011.875000 185 184 176
-241.000000 -143.000000 -994114.812500 182 181 173
-229.000000 -143.000000 -78353.875000 166 167 160
-228.000000 -143.000000 -78353.875000 176 176 169
-227.000000 -143.000000 -78353.875000 176 175 169
-226.000000 -143.000000 -78353.875000 176 175 170
-225.000000 -143.000000 -78353.875000 176 175 171
-198.000000 -143.000000 -78353.875000 170 174 164
-197.000000 -143.000000 -78353.875000 173 175 166
-196.000000 -143.000000 -78353.875000 174 175 167
-195.000000 -143.000000 -78353.875000 175 175 169
-194.000000 -143.000000 -78353.875000 175 176 170
-193.000000 -143.000000 -78353.875000 177 176 171
-192.000000 -143.000000 -78353.875000 178 177 172
-191.000000 -143.000000 -78353.875000 179 177 171
-190.000000 -143.000000 -78353.875000 179 177 171
-189.000000 -143.000000 -78353.875000 179 177 171
-188.000000 -143.000000 -78353.875000 179 177 171
-187.000000 -143.000000 -78353.875000 178 177 171
-186.000000 -143.000000 -78353.875000 178 177 171
-185.000000 -143.000000 -78353.875000 179 178 171
-184.000000 -143.000000 -78353.875000 179 178 171
-183.000000 -143.000000 -78353.875000 179 177 171
-182.000000 -143.000000 -78353.875000 179 177 171
-181.000000 -143.000000 -78353.875000 179 178 171
-180.000000 -143.000000 -78353.875000 180 179 172
-179.000000 -143.000000 -78353.875000 181 180 171
-178.000000 -143.000000 -78353.875000 181 182 170
-177.000000 -143.000000 -78353.875000 180 181 171
-176.000000 -143.000000 -78353.875000 179 181 171
-175.000000 -143.000000 -78353.875000 181 182 173
-174.000000 -143.000000 -78353.875000 182 181 175
-169.000000 -143.000000 -78353.875000 181 182 174
-168.000000 -143.000000 -78353.875000 182 181 174
-167.000000 -143.000000 -78353.875000 182 181 174
-166.000000 -143.000000 -78353.875000 179 178 171
-165.000000 -143.000000 -78353.875000 174 173 165
-164.000000 -143.000000 -78353.875000 173 172 163
-163.000000 -143.000000 -78353.875000 177 177 168
-162.000000 -143.000000 -78353.875000 173 174 166
-161.000000 -143.000000 -78353.875000 175 176 169
-160.000000 -143.000000 -78353.875000 176 176 167
-159.000000 -143.000000 -78353.875000 175 176 166
-158.000000 -143.000000 -78353.875000 176 176 165
-157.000000 -143.000000 -78353.875000 177 177 166
-156.000000 -143.000000 -78353.875000 177 177 165
-152.000000 -143.000000 -78353.875000 177 178 171
-151.000000 -143.000000 -78353.875000 181 182 176
-150.000000 -143.000000 -78353.875000 184 184 178
-149.000000 -143.000000 -78353.875000 184 184 178
-148.000000 -143.000000 -78353.875000 185 184 178
-147.000000 -143.000000 -78353.875000 185 184 178
-146.000000 -143.000000 -78353.875000 185 184 176
-145.000000 -143.000000 -78353.875000 185 185 176
-144.000000 -143.000000 -78353.875000 186 185 176
-139.000000 -143.000000 -78353.875000 187 186 179
-138.000000 -143.000000 -78353.875000 186 186 178
-137.000000 -143.000000 -78353.875000 186 188 179
-136.000000 -143.000000 -78353.875000 185 187 176
-135.000000 -143.000000 -78353.875000 184 185 175
-134.000000 -143.000000 -78353.875000 185 186 177
-133.000000 -143.000000 -78353.875000 187 188 179
-132.000000 -143.000000 -78353.875000 189 187 178
-131.000000 -143.000000 -78353.875000 191 188 178
-130.000000 -143.000000 -78353.875000 191 189 178
-129.000000 -143.000000 -78353.875000 189 187 177
-128.000000 -143.000000 -78353.875000 186 185 175
-127.000000 -143.000000 -78353.875000 186 184 175
-101.000000 -143.000000 -122427.929688 191 193 183
-100.000000 -143.000000 -127325.046875 192 193 183
-99.000000 -143.000000 -78353.875000 193 192 183
-98.000000 -143.000000 -78353.875000 194 193 185
-97.000000 -143.000000 -78353.875000 195 194 187
-96.000000 -143.000000 -78353.875000 195 194 186
-95.000000 -143.000000 -78353.875000 194 194 185
-94.000000 -143.000000 -78353.875000 194 193 184
-93.000000 -143.000000 -78353.875000 193 193 184
-92.000000 -143.000000 -78353.875000 192 192 183
-91.000000 -143.000000 -78353.875000 191 191 182
-90.000000 -143.000000 -78353.875000 190 191 182
-89.000000 -143.000000 -78353.875000 189 190 180
-88.000000 -143.000000 -78353.875000 188 189 180
-61.000000 -143.000000 -78353.875000 170 169 156
-60.000000 -143.000000 -78353.875000 168 166 153
-59.000000 -143.000000 -78353.875000 167 164 148
-58.000000 -143.000000 -78353.875000 170 168 153
-57.000000 -143.000000 -78353.875000 183 182 173
-56.000000 -143.000000 -78353.875000 188 187 179
-55.000000 -143.000000 -78353.875000 184 183 178
-54.000000 -143.000000 -78353.875000 186 184 179
-53.000000 -143.000000 -78353.875000 188 186 180
-38.000000 -143.000000 -78353.875000 0 1 0
-37.000000 -143.000000 -78353.875000 0 3 0
-36.000000 -143.000000 -78353.875000 0 1 0
-33.000000 -143.000000 -78353.875000 2 7 2
-32.000000 -143.000000 -78353.875000 37 39 34
-31.000000 -143.000000 -78353.875000 116 116 107
-30.000000 -143.000000 -78353.875000 148 149 143
-29.000000 -143.000000 -78353.875000 150 151 150
-28.000000 -143.000000 -78353.875000 162 163 159
-27.000000 -143.000000 -78353.875000 170 171 163
-26.000000 -143.000000 -78353.875000 175 176 169
-25.000000 -143.000000 -78353.875000 176 177 171
-24.000000 -143.000000 -78353.875000 178 179 173
-23.000000 -143.000000 -78353.875000 185 186 179
-22.000000 -143.000000 -78353.875000 189 190 182
-6.000000 -143.000000 -1248764.875000 191 190 181
-5.000000 -143.000000 -1248764.875000 192 187 186
-4.000000 -143.000000 -1248764.875000 175 170 169
-3.000000 -143.000000 -1248764.875000 162 158 157
-2.000000 -143.000000 -1248764.875000 162 160 157
-1.000000 -143.000000 -1248764.875000 175 174 170
25.000000 -143.000000 -1175308.125000 1 4 0
26.000000 -143.000000 -1248764.875000 0 0 0
27.000000 -143.000000 -1248764.875000 0 2 0
28.000000 -143.000000 -1248764.875000 0 0 0
36.000000 -143.000000 -78353.875000 162 160 157
37.000000 -143.000000 -78353.875000 173 171 168
38.000000 -143.000000 -78353.875000 182 177 175
39.000000 -143.000000 -78353.875000 192 189 186
40.000000 -143.000000 -78353.875000 196 195 189
41.000000 -143.000000 -78353.875000 192 191 185
42.000000 -143.000000 -78353.875000 184 184 177
43.000000 -143.000000 -78353.875000 181 181 174
44.000000 -143.000000 -78353.875000 185 184 176
59.000000 -143.000000 -1170411.000000 169 164 161
60.000000 -143.000000 -1248764.875000 167 162 159
61.000000 -143.000000 -1248764.875000 184 178 175
69.000000 -143.000000 -78353.875000 186 184 176
70.000000 -143.000000 -78353.875000 185 184 175
71.000000 -143.000000 -78353.875000 192 191 184
72.000000 -143.000000 -78353.875000 198 196 191
73.000000 -143.000000 -78353.875000 197 196 191
74.000000 -143.000000 -78353.875000 199 198 193
75.000000 -143.000000 -78353.875000 198 199 193
76.000000 -143.000000 -78353.875000 198 199 194
77.000000 -143.000000 -78353.875000 200 200 194
78.000000 -143.000000 -78353.875000 200 200 193
79.000000 -143.000000 -78353.875000 200 199 190
80.000000 -143.000000 -78353.875000 201 199 190
81.000000 -143.000000 -78353.875000 199 200 192
82.000000 -143.000000 -78353.875000 200 200 193
83.000000 -143.000000 -78353.875000 200 203 193
84.000000 -143.000000 -78353.875000 204 206 197
85.000000 -143.000000 -78353.875000 201 202 194
86.000000 -143.000000 -78353.875000 201 201 193
87.000000 -143.000000 -78353.875000 200 199 192
151.000000 -143.000000 -1175308.125000 203 200 197
152.000000 -143.000000 -1189999.500000 197 195 192
162.000000 -143.000000 -156707.750000 179 178 172
163.000000 -143.000000 -156707.750000 183 183 174
164.000000 -143.000000 -146913.515625 182 183 174
165.000000 -143.000000 -146913.515625 178 179 171
166.000000 -143.000000 -151810.625000 180 180 173
167.000000 -143.000000 -156707.750000 193 193 189
168.000000 -143.000000 -156707.750000 189 190 185
216.000000 -143.000000 -1248764.875000 197 195 189
217.000000 -143.000000 -1248764.875000 196 195 188
218.000000 -143.000000 -1248764.875000 196 195 188
219.000000 -143.000000 -1248764.875000 196 194 190
220.000000 -143.000000 -1248764.875000 196 194 190
221.000000 -143.000000 -1248764.875000 195 195 191
222.000000 -143.000000 -1248764.875000 195 196 190
255.000000 -143.000000 -78353.875000 196 197 190
256.000000 -143.000000 -78353.875000 193 194 188
257.000000 -143.000000 -78353.875000 194 194 187
258.000000 -143.000000 -78353.875000 195 194 187
259.000000 -143.000000 -78353.875000 195 194 187
260.000000 -143.000000 -78353.875000 194 192 186
261.000000 -143.000000 -78353.875000 192 191 186
262.000000 -143.000000 -78353.875000 190 190 185
263.000000 -143.000000 -78353.875000 172 175 171
264.000000 -143.000000 -78353.875000 176 179 174
265.000000 -143.000000 -78353.875000 189 189 184
266.000000 -143.000000 -78353.875000 191 190 186
267.000000 -143.000000 -78353.875000 193 191 188
268.000000 -143.000000 -78353.875000 191 189 187
269.000000 -143.000000 -78353.875000 190 188 187
270.000000 -143.000000 -78353.875000 185 184 182
271.000000 -143.000000 -78353.875000 173 176 171
318.000000 -143.000000 -78353.875000 108 109 107
319.000000 -143.000000 -78353.875000 0 0 0
-304.000000 -144.000000 -808024.312500 176 177 170
-303.000000 -144.000000 -837407.062500 178 177 171
-302.000000 -144.000000 -842304.125000 178 177 171
-301.000000 -144.000000 -847201.250000 178 177 172
-300.000000 -144.000000 -852098.375000 177 177 173
-299.000000 -144.000000 -856995.500000 177 177 172
-298.000000 -144.000000 -856995.500000 175 176 170
-297.000000 -144.000000 -856995.500000 175 175 169
-296.000000 -144.000000 -856995.500000 176 176 169
-295.000000 -144.000000 -861892.625000 176 176 170
-294.000000 -144.000000 -876584.000000 177 176 172
-293.000000 -144.000000 -910863.812500 177 176 172
-258.000000 -144.000000 -146913.515625 180 180 176
-244.000000 -144.000000 -969629.187500 184 185 178
-243.000000 -144.000000 -984320.562500 187 188 181
-242.000000 -144.000000 -994114.812500 183 183 174
-241.000000 -144.000000 -994114.812500 182 182 174
-240.000000 -144.000000 -994114.812500 181 181 174
-200.000000 -144.000000 -78353.875000 160 160 153
-199.000000 -144.000000 -78353.875000 170 173 165
-198.000000 -144.000000 -78353.875000 171 174 166
-197.000000 -144.000000 -78353.875000 172 174 166
-196.000000 -144.000000 -78353.875000 174 175 167
-195.000000 -144.000000 -78353.875000 175 175 170
-194.000000 -144.000000 -78353.875000 176 175 171
-193.000000 -144.000000 -78353.875000 177 176 172
-192.000000 -144.000000 -78353.875000 178 177 173
-191.000000 -144.000000 -78353.875000 179 177 172
-190.000000 -144.000000 -78353.875000 179 177 171
-189.000000 -144.000000 -78353.875000 179 177 171
-188.000000 -144.000000 -78353.875000 179 177 171
-187.000000 -144.000000 -78353.875000 179 177 171
-186.000000 -144.000000 -78353.875000 179 177 171
-185.000000 -144.000000 -78353.875000 179 177 171
-184.000000 -144.000000 -78353.875000 179 177 171
-183.000000 -144.000000 -78353.875000 179 177 171
-182.000000 -144.000000 -78353.875000 179 177 171
-181.000000 -144.000000 -127325.046875 179 177 171
-180.000000 -144.000000 -127325.046875 180 178 172
-179.000000 -144.000000 -78353.875000 180 180 172
-178.000000 -144.000000 -78353.875000 180 181 171
-177.000000 -144.000000 -122427.929688 179 180 170
-176.000000 -144.000000 -132222.156250 181 180 171
-175.000000 -144.000000 -132222.156250 182 181 173
-174.000000 -144.000000 -78353.875000 181 182 174
-170.000000 -144.000000 -78353.875000 179 180 173
-169.000000 -144.000000 -78353.875000 181 181 174
-168.000000 -144.000000 -78353.875000 182 180 176
-167.000000 -144.000000 -78353.875000 182 180 175
-166.000000 -144.000000 -78353.875000 180 179 172
-165.000000 -144.000000 -78353.875000 179 178 172
-164.000000 -144.000000 -78353.875000 177 176 170
-163.000000 -144.000000 -78353.875000 177 176 170
-162.000000 -144.000000 -78353.875000 175 177 168
-161.000000 -144.000000 -78353.875000 177 179 169
-160.000000 -144.000000 -78353.875000 179 178 169
-159.000000 -144.000000 -78353.875000 179 178 169
-158.000000 -144.000000 -78353.875000 177 177 167
-157.000000 -144.000000 -78353.875000 177 177 167
-156.000000 -144.000000 -78353.875000 179 178 168
-152.000000 -144.000000 -78353.875000 179 180 174
-151.000000 -144.000000 -78353.875000 182 182 178
-150.000000 -144.000000 -78353.875000 184 183 177
-149.000000 -144.000000 -78353.875000 184 183 177
-148.000000 -144.000000 -78353.875000 184 183 177
-147.000000 -144.000000 -78353.875000 184 183 177
-146.000000 -144.000000 -78353.875000 184 184 175
-145.000000 -144.000000 -78353.875000 184 184 175
-139.000000 -144.000000 -78353.875000 186 184 178
-138.000000 -144.000000 -78353.875000 185 185 178
-137.000000 -144.000000 -78353.875000 185 186 179
-136.000000 -144.000000 -78353.875000 184 186 177
-135.000000 -144.000000 -78353.875000 184 185 176
-134.000000 -144.000000 -78353.875000 184 186 176
-133.000000 -144.000000 -78353.875000 185 187 177
-132.000000 -144.000000 -78353.875000 187 186 176
-131.000000 -144.000000 -78353.875000 186 185 175
-130.000000 -144.000000 -78353.875000 186 184 176
-129.000000 -144.000000 -78353.875000 184 183 175
-128.000000 -144.000000 -78353.875000 185 184 175
-127.000000 -144.000000 -137119.281250 185 183 175
-101.000000 -144.000000 -146913.515625 193 192 183
-100.000000 -144.000000 -142016.406250 193 192 184
-99.000000 -144.000000 -122427.929688 193 192 185
-98.000000 -144.000000 -78353.875000 194 193 186
-97.000000 -144.000000 -78353.875000 194 193 186
-96.000000 -144.000000 -78353.875000 193 193 186
-95.000000 -144.000000 -78353.875000 192 193 186
-94.000000 -144.000000 -78353.875000 192 193 186
-93.000000 -144.000000 -78353.875000 191 192 185
-92.000000 -144.000000 -78353.875000 191 192 184
-91.000000 -144.000000 -78353.875000 190 191 182
-90.000000 -144.000000 -78353.875000 189 190 181
-89.000000 -144.000000 -78353.875000 187 188 177
-88.000000 -144.000000 -78353.875000 186 185 175
-62.000000 -144.000000 -78353.875000 166 167 158
-61.000000 -144.000000 -78353.875000 167 167 156
-60.000000 -144.000000 -78353.875000 168 167 156
-59.000000 -144.000000 -78353.875000 168 168 155
-58.000000 -144.000000 -78353.875000 168 169 157
-57.000000 -144.000000 -78353.875000 182 182 174
-56.000000 -144.000000 -78353.875000 186 186 178
-55.000000 -144.000000 -78353.875000 184 183 178
-54.000000 -144.000000 -78353.875000 186 184 179
-53.000000 -144.000000 -78353.875000 187 186 179
-38.000000 -144.000000 -78353.875000 0 1 0
-37.000000 -144.000000 -78353.875000 0 1 0
-36.000000 -144.000000 -78353.875000 0 0 0
-35.000000 -144.000000 -78353.875000 0 1 0
-34.000000 -144.000000 -78353.875000 0 1 0
-33.000000 -144.000000 -78353.875000 9 14 11
-32.000000 -144.000000 -78353.875000 43 46 36
-31.000000 -144.000000 -78353.875000 110 94 73
-30.000000 -144.000000 -78353.875000 165 152 135
-29.000000 -144.000000 -78353.875000 153 146 139
-28.000000 -144.000000 -78353.875000 160 157 147
-27.000000 -144.000000 -78353.875000 167 169 157
-26.000000 -144.000000 -78353.875000 172 173 162
-25.000000 -144.000000 -78353.875000 175 175 164
-24.000000 -144.000000 -78353.875000 183 183 173
-23.000000 -144.000000 -78353.875000 188 188 179
-22.000000 -144.000000 -78353.875000 186 186 178
-21.000000 -144.000000 -78353.875000 190 189 182
-5.000000 -144.000000 -1248764.875000 173 171 167
-4.000000 -144.000000 -1248764.875000 170 168 166
-3.000000 -144.000000 -1248764.875000 168 166 165
-2.000000 -144.000000 -1248764.875000 171 168 166
-1.000000 -144.000000 -1248764.875000 177 173 171
25.000000 -144.000000 -1141028.250000 1 8 0
26.000000 -144.000000 -1189999.500000 0 1 0
27.000000 -144.000000 -1248764.875000 0 4 0
28.000000 -144.000000 -1248764.875000 0 0 0
36.000000 -144.000000 -78353.875000 144 143 141
37.000000 -144.000000 -78353.875000 159 158 154
38.000000 -144.000000 -78353.875000 171 170 165
39.000000 -144.000000 -78353.875000 181 180 175
40.000000 -144.000000 -78353.875000 192 191 187
41.000000 -144.000000 -78353.875000 195 194 189
42.000000 -144.000000 -78353.875000 184 187 179
43.000000 -144.000000 -78353.875000 182 185 176
44.000000 -144.000000 -78353.875000 184 185 174
58.000000 -144.000000 -1092057.125000 173 168 165
59.000000 -144.000000 -1170411.000000 166 162 160
60.000000 -144.000000 -1248764.875000 167 165 164
61.000000 -144.000000 -1248764.875000 179 175 172
69.000000 -144.000000 -78353.875000 186 184 178
70.000000 -144.000000 -78353.875000 190 188 182
71.000000 -144.000000 -78353.875000 195 194 187
72.000000 -144.000000 -78353.875000 198 196 190
73.000000 -144.000000 -78353.875000 198 198 192
74.000000 -144.000000 -78353.875000 199 198 193
75.000000 -144.000000 -78353.875000 199 198 194
76.000000 -144.000000 -78353.875000 202 201 197
77.000000 -144.000000 -78353.875000 201 201 194
78.000000 -144.000000 -78353.875000 204 204 197
79.000000 -144.000000 -78353.875000 204 203 195
80.000000 -144.000000 -78353.875000 201 200 191
81.000000 -144.000000 -78353.875000 201 201 195
82.000000 -144.000000 -78353.875000 206 205 200
83.000000 -144.000000 -78353.875000 206 208 199
84.000000 -144.000000 -78353.875000 209 210 201
85.000000 -144.000000 -78353.875000 203 204 197
86.000000 -144.000000 -78353.875000 201 202 195
87.000000 -144.000000 -78353.875000 201 200 193
107.000000 -144.000000 -78353.875000 196 195 187
108.000000 -144.000000 -78353.875000 197 196 187
109.000000 -144.000000 -78353.875000 196 195 186
162.000000 -144.000000 -137119.281250 184 181 176
163.000000 -144.000000 -146913.515625 182 183 174
164.000000 -144.000000 -142016.406250 182 183 175
165.000000 -144.000000 -142016.406250 183 184 176
166.000000 -144.000000 -151810.625000 185 184 178
167.000000 -144.000000 -156707.750000 186 176 177
168.000000 -144.000000 -156707.750000 180 174 173
215.000000 -144.000000 -1248764.875000 199 195 192
216.000000 -144.000000 -1248764.875000 198 195 191
217.000000 -144.000000 -1248764.875000 196 195 188
218.000000 -144.000000 -1248764.875000 196 195 188
219.000000 -144.000000 -1248764.875000 196 194 190
220.000000 -144.000000 -1248764.875000 195 194 189
221.000000 -144.000000 -1248764.875000 192 194 187
222.000000 -144.000000 -1248764.875000 194 196 188
223.000000 -144.000000 -1248764.875000 193 195 185
255.000000 -144.000000 -78353.875000 194 194 189
256.000000 -144.000000 -78353.875000 195 194 189
257.000000 -144.000000 -78353.875000 194 193 187
258.000000 -144.000000 -78353.875000 194 193 186
259.000000 -144.000000 -78353.875000 194 193 186
260.000000 -144.000000 -78353.875000 194 193 186
261.000000 -144.000000 -78353.875000 191 191 186
262.000000 -144.000000 -78353.875000 190 190 185
263.000000 -144.000000 -78353.875000 172 174 171
264.000000 -144.000000 -78353.875000 183 186 182
265.000000 -144.000000 -78353.875000 191 190 186
266.000000 -144.000000 -78353.875000 193 191 187
267.000000 -144.000000 -78353.875000 193 191 188
268.000000 -144.000000 -78353.875000 192 190 187
318.000000 -144.000000 -78353.875000 108 108 107
319.000000 -144.000000 -78353.875000 0 0 0
-304.000000 -145.000000 -837407.062500 175 176 168
-303.000000 -145.000000 -842304.125000 176 176 169
-302.000000 -145.000000 -847201.250000 177 176 170
-301.000000 -145.000000 -852098.375000 177 176 170
-300.000000 -145.000000 -856995.500000 177 176 171
-299.000000 -145.000000 -856995.500000 175 175 170
-298.000000 -145.000000 -856995.500000 172 173 167
-297.000000 -145.000000 -856995.500000 172 173 167
-296.000000 -145.000000 -861892.625000 175 176 169
-295.000000 -145.000000 -871686.875000 175 176 169
-294.000000 -145.000000 -910863.812500 176 176 170
-293.000000 -145.000000 -920658.000000 176 177 171
-292.000000 -145.000000 -935349.375000 175 178 171
-291.000000 -145.000000 -935349.375000 176 179 171
-259.000000 -145.000000 -381975.125000 182 182 177
-258.000000 -145.000000 -386872.250000 182 182 178
-254.000000 -145.000000 -377078.031250 182 181 176
-253.000000 -145.000000 -386872.250000 183 182 178
-252.000000 -145.000000 -377078.031250 185 184 180
-244.000000 -145.000000 -969629.187500 182 185 177
-243.000000 -145.000000 -979423.437500 184 187 179
-242.000000 -145.000000 -994114.812500 182 183 174
-241.000000 -145.000000 -994114.812500 179 181 172
-240.000000 -145.000000 -994114.812500 179 180 174
-201.000000 -145.000000 -78353.875000 150 150 145
-200.000000 -145.000000 -78353.875000 162 162 156
-199.000000 -145.000000 -78353.875000 169 172 164
-198.000000 -145.000000 -78353.875000 172 175 167
-197.000000 -145.000000 -78353.875000 172 174 167
-196.000000 -145.000000 -78353.875000 174 174 168
-195.000000 -145.000000 -78353.875000 175 175 170
-194.000000 -145.000000 -78353.875000 176 176 172
-193.000000 -145.000000 -78353.875000 177 176 171
-192.000000 -145.000000 -78353.875000 178 177 171
-191.000000 -145.000000 -78353.875000 179 177 171
-190.000000 -145.000000 -78353.875000 179 177 171
-189.000000 -145.000000 -78353.875000 179 177 171
-188.000000 -145.000000 -78353.875000 179 178 171
-187.000000 -145.000000 -78353.875000 180 178 171
-186.000000 -145.000000 -78353.875000 180 177 171
-185.000000 -145.000000 -78353.875000 181 177 173
-184.000000 -145.000000 -78353.875000 180 177 173
-183.000000 -145.000000 -78353.875000 180 176 173
-182.000000 -145.000000 -78353.875000 180 176 174
-181.000000 -145.000000 -127325.046875 179 177 173
-180.000000 -145.000000 -127325.046875 179 177 171
-179.000000 -145.000000 -78353.875000 179 179 171
-178.000000 -145.000000 -78353.875000 178 180 170
-177.000000 -145.000000 -78353.875000 179 180 170
-176.000000 -145.000000 -132222.156250 180 179 170
-175.000000 -145.000000 -132222.156250 180 180 170
-174.000000 -145.000000 -78353.875000 179 181 171
-173.000000 -145.000000 -78353.875000 181 182 173
-172.000000 -145.000000 -78353.875000 180 181 173
-171.000000 -145.000000 -78353.875000 179 179 172
-170.000000 -145.000000 -78353.875000 180 179 172
-169.000000 -145.000000 -78353.875000 179 178 172
-168.000000 -145.000000 -78353.875000 178 177 173
-167.000000 -145.000000 -78353.875000 183 182 178
-166.000000 -145.000000 -78353.875000 180 180 175
-165.000000 -145.000000 -78353.875000 177 178 173
-164.000000 -145.000000 -78353.875000 177 178 171
-163.000000 -145.000000 -78353.875000 176 177 170
-162.000000 -145.000000 -78353.875000 178 179 171
-161.000000 -145.000000 -78353.875000 179 179 172
-160.000000 -145.000000 -78353.875000 180 179 171
-159.000000 -145.000000 -78353.875000 179 178 170
-158.000000 -145.000000 -78353.875000 179 178 171
-157.000000 -145.000000 -78353.875000 179 178 171
-156.000000 -145.000000 -78353.875000 179 177 171
-155.000000 -145.000000 -78353.875000 180 180 173
-152.000000 -145.000000 -78353.875000 181 181 177
-151.000000 -145.000000 -78353.875000 182 182 178
-150.000000 -145.000000 -78353.875000 183 182 176
-149.000000 -145.000000 -78353.875000 183 182 176
-148.000000 -145.000000 -78353.875000 183 182 176
-147.000000 -145.000000 -78353.875000 183 182 176
-146.000000 -145.000000 -78353.875000 182 182 173
-145.000000 -145.000000 -78353.875000 183 183 174
-144.000000 -145.000000 -78353.875000 185 183 175
-140.000000 -145.000000 -78353.875000 186 184 178
-139.000000 -145.000000 -78353.875000 185 184 178
-138.000000 -145.000000 -78353.875000 184 184 178
-137.000000 -145.000000 -78353.875000 184 185 178
-136.000000 -145.000000 -78353.875000 185 186 177
-135.000000 -145.000000 -78353.875000 185 187 177
-134.000000 -145.000000 -78353.875000 185 187 177
-133.000000 -145.000000 -78353.875000 185 187 177
-132.000000 -145.000000 -78353.875000 185 185 176
-131.000000 -145.000000 -78353.875000 185 184 175
-130.000000 -145.000000 -78353.875000 184 183 175
-129.000000 -145.000000 -137119.281250 183 183 175
-128.000000 -145.000000 -137119.281250 184 184 175
-102.000000 -145.000000 -161604.875000 191 191 184
-101.000000 -145.000000 -166501.984375 193 191 185
-100.000000 -145.000000 -156707.750000 193 191 186
-99.000000 -145.000000 -127325.046875 194 190 187
-95.000000 -145.000000 -78353.875000 191 192 185
-94.000000 -145.000000 -78353.875000 191 192 185
-93.000000 -145.000000 -78353.875000 191 192 185
-92.000000 -145.000000 -78353.875000 191 191 185
-91.000000 -145.000000 -78353.875000 191 190 184
-90.000000 -145.000000 -78353.875000 190 189 182
-89.000000 -145.000000 -78353.875000 190 189 181
-88.000000 -145.000000 -78353.875000 190 190 181
-62.000000 -145.000000 -78353.875000 171 170 164
-61.000000 -145.000000 -78353.875000 168 167 158
-60.000000 -145.000000 -78353.875000 171 170 161
-59.000000 -145.000000 -78353.875000 172 171 161
-58.000000 -145.000000 -78353.875000 173 173 162
-57.000000 -145.000000 -78353.875000 181 182 171
-56.000000 -145.000000 -78353.875000 182 182 173
-55.000000 -145.000000 -78353.875000 182 181 177
-54.000000 -145.000000 -78353.875000 185 183 179
-53.000000 -145.000000 -78353.875000 185 184 178
-38.000000 -145.000000 -78353.875000 124 125 112
-37.000000 -145.000000 -78353.875000 99 101 86
-36.000000 -145.000000 -78353.875000 79 80 62
-35.000000 -145.000000 -78353.875000 76 76 50
-34.000000 -145.000000 -78353.875000 58 60 22
-33.000000 -145.000000 -78353.875000 49 56 5
-32.000000 -145.000000 -78353.875000 64 68 43
-31.000000 -145.000000 -78353.875000 142 137 124
-30.000000 -145.000000 -78353.875000 150 146 137
-29.000000 -145.000000 -78353.875000 136 133 130
-28.000000 -145.000000 -78353.875000 141 140 135
-27.000000 -145.000000 -78353.875000 145 147 137
-26.000000 -145.000000 -78353.875000 157 158 148
-25.000000 -145.000000 -78353.875000 172 174 164
-24.000000 -145.000000 -78353.875000 184 184 175
-23.000000 -145.000000 -78353.875000 188 187 178
-22.000000 -145.000000 -78353.875000 177 177 170
-21.000000 -145.000000 -78353.875000 181 182 176
-5.000000 -145.000000 -1248764.875000 79 71 69
-4.000000 -145.000000 -1248764.875000 94 89 90
-3.000000 -145.000000 -1248764.875000 95 94 96
-2.000000 -145.000000 -1248764.875000 102 102 109
-1.000000 -145.000000 -1248764.875000 110 111 121
25.000000 -145.000000 -1121439.875000 44 42 35
26.000000 -145.000000 -1170411.000000 38 35 30
27.000000 -145.000000 -1189999.500000 30 27 22
36.000000 -145.000000 -78353.875000 143 144 136
37.000000 -145.000000 -78353.875000 148 149 141
38.000000 -145.000000 -78353.875000 165 165 158
39.000000 -145.000000 -78353.875000 174 175 167
40.000000 -145.000000 -78353.875000 186 186 180
41.000000 -145.000000 -78353.875000 194 194 187
42.000000 -145.000000 -78353.875000 186 188 180
43.000000 -145.000000 -78353.875000 183 184 177
56.000000 -145.000000 -989217.687500 107 111 108
57.000000 -145.000000 -1023497.500000 123 126 123
58.000000 -145.000000 -1092057.125000 132 134 129
59.000000 -145.000000 -1092057.125000 138 138 134
60.000000 -145.000000 -1170411.000000 140 138 135
70.000000 -145.000000 -78353.875000 193 191 186
71.000000 -145.000000 -78353.875000 195 195 188
72.000000 -145.000000 -78353.875000 196 197 189
73.000000 -145.000000 -78353.875000 197 198 191
74.000000 -145.000000 -78353.875000 197 198 191
75.000000 -145.000000 -78353.875000 197 197 192
76.000000 -145.000000 -78353.875000 199 199 195
77.000000 -145.000000 -78353.875000 199 199 194
78.000000 -145.000000 -78353.875000 198 198 193
79.000000 -145.000000 -78353.875000 202 201 194
80.000000 -145.000000 -78353.875000 200 199 191
81.000000 -145.000000 -78353.875000 200 200 195
82.000000 -145.000000 -78353.875000 199 199 194
83.000000 -145.000000 -78353.875000 196 196 188
84.000000 -145.000000 -78353.875000 204 203 196
85.000000 -145.000000 -78353.875000 201 202 197
86.000000 -145.000000 -78353.875000 201 202 196
106.000000 -145.000000 -78353.875000 197 196 188
107.000000 -145.000000 -78353.875000 197 196 188
108.000000 -145.000000 -78353.875000 196 196 187
109.000000 -145.000000 -78353.875000 193 195 185
162.000000 -145.000000 -78353.875000 190 188 180
163.000000 -145.000000 -132222.156250 182 183 176
164.000000 -145.000000 -132222.156250 183 184 176
165.000000 -145.000000 -137119.281250 186 188 180
166.000000 -145.000000 -142016.406250 183 184 178
167.000000 -145.000000 -151810.625000 164 164 162
214.000000 -145.000000 -1248764.875000 196 194 190
215.000000 -145.000000 -1248764.875000 199 195 192
216.000000 -145.000000 -1248764.875000 199 195 192
217.000000 -145.000000 -1248764.875000 197 196 190
218.000000 -145.000000 -1248764.875000 197 196 189
219.000000 -145.000000 -1248764.875000 196 195 188
220.000000 -145.000000 -1248764.875000 196 195 189
221.000000 -145.000000 -1248764.875000 195 194 189
222.000000 -145.000000 -1248764.875000 196 195 189
223.000000 -145.000000 -1248764.875000 195 195 187
255.000000 -145.000000 -78353.875000 191 190 186
256.000000 -145.000000 -78353.875000 193 191 187
257.000000 -145.000000 -78353.875000 194 193 187
258.000000 -145.000000 -78353.875000 194 193 186
259.000000 -145.000000 -78353.875000 194 193 186
260.000000 -145.000000 -78353.875000 193 192 185
261.000000 -145.000000 -78353.875000 190 191 185
262.000000 -145.000000 -78353.875000 188 189 183
263.000000 -145.000000 -78353.875000 171 173 168
264.000000 -145.000000 -78353.875000 186 188 183
265.000000 -145.000000 -78353.875000 197 195 191
266.000000 -145.000000 -78353.875000 193 191 187
267.000000 -145.000000 -78353.875000 193 191 187
319.000000 -145.000000 -78353.875000 0 0 0
-304.000000 -146.000000 -842304.125000 175 175 166
-303.000000 -146.000000 -847201.250000 175 175 167
-302.000000 -146.000000 -852098.375000 176 175 168
-301.000000 -146.000000 -856995.500000 176 175 168
-300.000000 -146.000000 -856995.500000 176 175 168
-299.000000 -146.000000 -856995.500000 174 175 167
-298.000000 -146.000000 -856995.500000 172 173 165
-297.000000 -146.000000 -861892.625000 173 174 166
-296.000000 -146.000000 -871686.875000 175 176 169
-295.000000 -146.000000 -871686.875000 175 176 169
-294.000000 -146.000000 -910863.812500 176 177 170
-293.000000 -146.000000 -920658.000000 176 177 170
-292.000000 -146.000000 -935349.375000 176 178 170
-291.000000 -146.000000 -935349.375000 176 178 171
-259.000000 -146.000000 -381975.125000 181 182 177
-258.000000 -146.000000 -391769.375000 182 182 177
-257.000000 -146.000000 -381975.125000 182 182 176
-256.000000 -146.000000 -372180.906250 182 182 175
-255.000000 -146.000000 -372180.906250 181 181 174
-254.000000 -146.000000 -386872.250000 182 181 174
-253.000000 -146.000000 -391769.375000 183 182 177
-252.000000 -146.000000 -391769.375000 184 182 178
-251.000000 -146.000000 -377078.031250 184 182 178
-243.000000 -146.000000 -945143.625000 182 183 177
-242.000000 -146.000000 -964732.062500 181 182 174
-241.000000 -146.000000 -964732.062500 180 181 173
-202.000000 -146.000000 -78353.875000 138 138 131
-201.000000 -146.000000 -78353.875000 143 143 140
-200.000000 -146.000000 -78353.875000 158 159 155
-199.000000 -146.000000 -78353.875000 163 165 157
-198.000000 -146.000000 -78353.875000 170 172 164
-197.000000 -146.000000 -78353.875000 173 174 169
-196.000000 -146.000000 -78353.875000 173 174 169
-195.000000 -146.000000 -78353.875000 175 175 171
-194.000000 -146.000000 -78353.875000 176 176 171
-193.000000 -146.000000 -78353.875000 176 176 170
-192.000000 -146.000000 -78353.875000 177 177 170
-191.000000 -146.000000 -78353.875000 178 177 171
-190.000000 -146.000000 -78353.875000 179 177 171
-189.000000 -146.000000 -78353.875000 179 177 170
-188.000000 -146.000000 -78353.875000 180 179 170
-187.000000 -146.000000 -78353.875000 180 178 171
-186.000000 -146.000000 -78353.875000 179 177 171
-185.000000 -146.000000 -78353.875000 180 177 173
-184.000000 -146.000000 -78353.875000 179 176 174
-183.000000 -146.000000 -78353.875000 179 176 174
-182.000000 -146.000000 -78353.875000 180 176 174
-181.000000 -146.000000 -78353.875000 180 178 173
-180.000000 -146.000000 -78353.875000 178 177 171
-179.000000 -146.000000 -78353.875000 178 177 169
-178.000000 -146.000000 -78353.875000 179 178 169
-177.000000 -146.000000 -78353.875000 179 178 170
-176.000000 -146.000000 -127325.046875 179 177 171
-175.000000 -146.000000 -127325.046875 179 178 171
-174.000000 -146.000000 -78353.875000 178 180 170
-173.000000 -146.000000 -78353.875000 178 180 171
-172.000000 -146.000000 -78353.875000 178 179 172
-171.000000 -146.000000 -78353.875000 178 179 172
-170.000000 -146.000000 -78353.875000 177 178 173
-169.000000 -146.000000 -78353.875000 179 180 175
-168.000000 -146.000000 -78353.875000 181 181 176
-167.000000 -146.000000 -78353.875000 181 181 176
-166.000000 -146.000000 -78353.875000 182 181 174
-165.000000 -146.000000 -78353.875000 180 179 172
-164.000000 -146.000000 -78353.875000 178 179 172
-163.000000 -146.000000 -78353.875000 179 180 173
-162.000000 -146.000000 -78353.875000 181 182 174
-161.000000 -146.000000 -78353.875000 182 183 175
-160.000000 -146.000000 -78353.875000 183 182 176
-159.000000 -146.000000 -78353.875000 180 180 173
-158.000000 -146.000000 -78353.875000 179 180 171
-157.000000 -146.000000 -78353.875000 181 182 172
-156.000000 -146.000000 -78353.875000 179 180 172
-155.000000 -146.000000 -78353.875000 181 182 174
-154.000000 -146.000000 -78353.875000 181 181 176
-153.000000 -146.000000 -78353.875000 182 181 177
-152.000000 -146.000000 -78353.875000 182 182 178
-151.000000 -146.000000 -78353.875000 182 182 178
-150.000000 -146.000000 -78353.875000 183 182 176
-149.000000 -146.000000 -78353.875000 183 182 176
-148.000000 -146.000000 -78353.875000 183 182 176
-147.000000 -146.000000 -78353.875000 183 182 176
-146.000000 -146.000000 -78353.875000 181 180 172
-145.000000 -146.000000 -78353.875000 183 182 174
-144.000000 -146.000000 -78353.875000 186 183 176
-143.000000 -146.000000 -78353.875000 187 184 177
-142.000000 -146.000000 -78353.875000 187 184 176
-141.000000 -146.000000 -78353.875000 187 184 176
-140.000000 -146.000000 -78353.875000 185 184 177
-139.000000 -146.000000 -78353.875000 184 183 177
-138.000000 -146.000000 -78353.875000 184 183 178
-137.000000 -146.000000 -78353.875000 184 184 178
-136.000000 -146.000000 -78353.875000 184 185 177
-135.000000 -146.000000 -78353.875000 186 187 178
-134.000000 -146.000000 -78353.875000 184 187 178
-133.000000 -146.000000 -78353.875000 184 187 178
-132.000000 -146.000000 -78353.875000 183 185 176
-131.000000 -146.000000 -78353.875000 184 184 175
-130.000000 -146.000000 -151810.625000 184 184 175
-129.000000 -146.000000 -137119.281250 185 184 175
-102.000000 -146.000000 -171399.093750 190 190 183
-101.000000 -146.000000 -181193.343750 191 190 184
-100.000000 -146.000000 -171399.093750 192 190 184
-99.000000 -146.000000 -137119.281250 194 190 184
-95.000000 -146.000000 -78353.875000 193 191 187
-94.000000 -146.000000 -78353.875000 192 191 186
-93.000000 -146.000000 -78353.875000 190 191 184
-92.000000 -146.000000 -78353.875000 190 191 184
-91.000000 -146.000000 -78353.875000 191 190 184
-90.000000 -146.000000 -78353.875000 190 189 182
-89.000000 -146.000000 -78353.875000 190 189 181
-88.000000 -146.000000 -78353.875000 190 189 181
-63.000000 -146.000000 -78353.875000 170 166 161
-62.000000 -146.000000 -78353.875000 169 166 159
-61.000000 -146.000000 -78353.875000 165 165 154
-60.000000 -146.000000 -78353.875000 172 171 160
-59.000000 -146.000000 -78353.875000 175 173 161
-58.000000 -146.000000 -78353.875000 179 177 166
-57.000000 -146.000000 -78353.875000 183 182 172
-56.000000 -146.000000 -78353.875000 181 180 172
-55.000000 -146.000000 -78353.875000 178 177 173
-54.000000 -146.000000 -78353.875000 181 180 175
-38.000000 -146.000000 -78353.875000 174 172 165
-37.000000 -146.000000 -78353.875000 152 150 142
-36.000000 -146.000000 -78353.875000 137 132 119
-35.000000 -146.000000 -78353.875000 156 146 125
-34.000000 -146.000000 -78353.875000 157 149 123
-33.000000 -146.000000 -78353.875000 153 152 120
-32.000000 -146.000000 -78353.875000 159 158 134
-31.000000 -146.000000 -78353.875000 170 168 151
-30.000000 -146.000000 -78353.875000 169 167 154
-29.000000 -146.000000 -78353.875000 169 166 158
-28.000000 -146.000000 -78353.875000 168 167 159
-27.000000 -146.000000 -78353.875000 167 169 159
-26.000000 -146.000000 -78353.875000 169 169 159
-25.000000 -146.000000 -78353.875000 176 173 163
-24.000000 -146.000000 -78353.875000 186 184 175
-23.000000 -146.000000 -78353.875000 184 183 176
-22.000000 -146.000000 -78353.875000 171 172 166
-21.000000 -146.000000 -78353.875000 173 176 170
-5.000000 -146.000000 -1248764.875000 0 0 0
-4.000000 -146.000000 -1248764.875000 0 0 0
-3.000000 -146.000000 -1248764.875000 0 0 0
-2.000000 -146.000000 -1248764.875000 0 0 0
-1.000000 -146.000000 -1248764.875000 0 0 0
24.000000 -146.000000 -1101851.375000 175 170 149
25.000000 -146.000000 -1111645.625000 158 153 132
26.000000 -146.000000 -1155719.625000 144 136 123
27.000000 -146.000000 -1155719.625000 128 120 108
36.000000 -146.000000 -78353.875000 140 141 127
37.000000 -146.000000 -78353.875000 149 151 136
38.000000 -146.000000 -78353.875000 165 164 154
39.000000 -146.000000 -78353.875000 176 176 166
40.000000 -146.000000 -78353.875000 188 189 181
41.000000 -146.000000 -78353.875000 187 187 180
42.000000 -146.000000 -78353.875000 185 186 178
43.000000 -146.000000 -78353.875000 183 184 176
56.000000 -146.000000 -1023497.500000 21 27 24
57.000000 -146.000000 -1033291.750000 36 41 38
58.000000 -146.000000 -1092057.125000 47 50 47
59.000000 -146.000000 -1092057.125000 52 54 51
60.000000 -146.000000 -1170411.000000 52 52 49
70.000000 -146.000000 -78353.875000 197 194 190
71.000000 -146.000000 -78353.875000 194 195 189
72.000000 -146.000000 -78353.875000 195 196 190
73.000000 -146.000000 -78353.875000 196 197 190
74.000000 -146.000000 -78353.875000 196 197 190
75.000000 -146.000000 -78353.875000 197 196 191
76.000000 -146.000000 -78353.875000 198 197 192
77.000000 -146.000000 -78353.875000 199 198 194
78.000000 -146.000000 -78353.875000 197 196 192
79.000000 -146.000000 -78353.875000 200 198 193
80.000000 -146.000000 -78353.875000 200 198 193
81.000000 -146.000000 -78353.875000 200 200 193
82.000000 -146.000000 -78353.875000 194 194 188
